x,y,z
5.077706755 -10.74655222 -0.862200209
5.06740652 -9.784558823 -0.904950551
7.095597936 -11.63231494 -0.879459438
5.045982752 -10.76478939 -0.86241723
5.039186718 -9.803605115 -0.90527796
5.013774399 -10.78202838 -0.86256195
5.013161966 -9.827009042 -0.906014673
6.880048215 -11.43620421 -0.861424562
4.986102796 -10.80913346 -0.863502512
4.982539234 -9.841453499 -0.905932776
6.743592207 -11.28763453 -0.848671314
4.95125729 -10.82075214 -0.863213131
4.953665225 -9.859365817 -0.906178348
6.702310769 -11.29711372 -0.847833929
4.920509827 -10.84134047 -0.863647231
4.91939119 -9.86648952 -0.905441694
6.658502802 -11.3021462 -0.846674559
4.891320299 -10.8654806 -0.864370713
4.883794553 -9.870815453 -0.904459468
6.610695369 -11.30012556 -0.844999906
4.862028355 -10.88954286 -0.865094194
4.84777798 -9.874122209 -0.903395406
6.536897686 -11.25304788 -0.83997589
4.831827652 -10.91170383 -0.865673015
4.816589044 -9.887156757 -0.903231673
6.482398785 -11.23847265 -0.837399479
4.804343588 -10.94017463 -0.866758296
4.784064149 -9.89740021 -0.902822427
6.446897302 -11.25657533 -0.837270674
4.780314766 -10.97680828 -0.868494698
4.754108113 -9.912930193 -0.902904265
6.419731635 -11.28931337 -0.838236806
4.748592747 -10.99600051 -0.868856439
4.719390988 -9.918468847 -0.902085773
6.391935332 -11.32112184 -0.839138564
4.72425797 -11.0325223 -0.870592842
4.685535638 -9.925691051 -0.901430956
6.421095536 -11.45471244 -0.847576317
4.689608806 -11.04512818 -0.870448181
4.650412503 -9.930091651 -0.900530569
4.655700718 -11.05946342 -0.870448181
4.618665966 -9.941600309 -0.900285057
4.616370588 -11.060809 -0.86943526
4.586057904 -9.951197171 -0.899875752
4.574406949 -11.05556599 -0.867915878
4.545561638 -9.943466094 -0.897911361
4.539331764 -11.06677994 -0.867698857
4.510918654 -9.948288559 -0.897092812
4.515125656 -11.10467613 -0.869579921
4.479150149 -9.959354104 -0.8968473
4.485509414 -11.12957696 -0.870448181
4.449792158 -9.975779628 -0.897092812
4.448753536 -11.13680273 -0.869941721
4.426423342 -10.00579057 -0.898566178
4.425946622 -11.17914601 -0.872184583
4.3981079 -10.02479931 -0.899057261
4.393814718 -11.19824289 -0.872618684
4.355403039 -10.01082842 -0.896601728
4.359438383 -11.21167052 -0.872618684
4.318747888 -10.01041625 -0.895373932
4.330399797 -11.23895254 -0.873703906
4.278216142 -10.00071182 -0.893327646
5.929067284 -11.55455339 -0.838236805
4.296965758 -11.25498061 -0.873920986
4.252962804 -10.0266351 -0.894473604
5.821132114 -11.43040961 -0.827931162
4.265591676 -11.27650602 -0.874572107
4.227977044 -10.05341607 -0.895701341
5.605532521 -11.09107048 -0.802102563
4.238326046 -11.30915259 -0.876091489
4.199031228 -10.07094006 -0.896110587
5.569242452 -11.10375573 -0.801780519
4.207775977 -11.33332232 -0.87695969
4.165068663 -10.07640614 -0.89545577
5.531148192 -11.11274961 -0.801200805
4.17608438 -11.35460373 -0.877610871
4.133757375 -10.08821451 -0.895373932
5.479352159 -11.09387648 -0.798624393
4.140888032 -11.36642506 -0.877538511
4.105037762 -10.10638995 -0.895865075
5.415426974 -11.04970077 -0.794244525
4.101934688 -11.36781737 -0.87667031
4.063590455 -10.09304966 -0.893573217
5.384556753 -11.07254484 -0.794695374
4.067374927 -11.38128739 -0.87674267
4.026696039 -10.09065791 -0.892263583
5.499308453 -11.39729009 -0.816788134
4.03942651 -11.41345743 -0.878261993
3.996452597 -10.10481849 -0.892427317
4.003731863 -11.42391363 -0.878117273
3.962158944 -10.10868069 -0.891690604
3.966703018 -11.43048971 -0.877683172
3.928962284 -10.11521448 -0.891199521
3.928375016 -11.43317326 -0.876959691
3.89540493 -10.12071009 -0.890626542
3.885892547 -11.4234537 -0.875295648
3.862560954 -10.127957 -0.890217296
5.254984191 -11.33183308 -0.80622482
3.848280952 -11.42776021 -0.874716828
3.830061517 -10.13603015 -0.889889888
5.152214977 -11.20012597 -0.795725939
3.813202998 -11.43951244 -0.874716827
3.791259034 -10.12719884 -0.888089172
5.104572541 -11.18682738 -0.79366481
3.776526659 -11.44642229 -0.874355087
3.759478462 -10.13691304 -0.887925438
5.068582208 -11.19879959 -0.793407199
3.739843841 -11.45321332 -0.873993346
3.727330029 -10.14559287 -0.887679926
5.200536406 -11.58482895 -0.819622215
3.609004245 -11.16852657 -0.851419994
3.697208638 -10.15979007 -0.887925438
3.565609862 -11.1510464 -0.849249491
3.664669687 -10.16733481 -0.88759803
3.527470897 -11.14957118 -0.84830893
3.635134813 -10.18322361 -0.888007335
3.495035564 -11.16605213 -0.84874303
3.600554279 -10.18493165 -0.887188785
3.461647217 -11.1795809 -0.848960052
3.566655854 -10.18840436 -0.886533968
3.431421669 -11.20349938 -0.849972973
3.532770288 -10.19176491 -0.885879151
3.396455342 -11.21206506 -0.849828253
3.498574053 -10.19407203 -0.885142498
3.359465247 -11.21383334 -0.849177131
3.462473069 -10.19060216 -0.883914701
3.370939859 -11.37900838 -0.860897908
3.429286012 -10.1955088 -0.883423618
3.354517509 -11.45246896 -0.865673015
3.401768522 -10.21732923 -0.884405843
3.316314353 -11.45216896 -0.864877174
3.37758075 -10.24948882 -0.886288397
3.280065904 -11.45845352 -0.864587793
3.343029607 -10.25032823 -0.885469906
3.245168005 -11.46942197 -0.864660093
3.298403328 -10.21975207 -0.881950311
3.205936279 -11.46491651 -0.863574872
3.26521466 -10.22412657 -0.881459169
3.170481486 -11.47373714 -0.863502512
3.238336407 -10.24835122 -0.882686965
3.136053696 -11.48629658 -0.863719533
3.210150848 -10.26870148 -0.883587352
3.096643802 -11.48045623 -0.862561951
3.175981878 -10.26993192 -0.882850639
3.061407558 -11.48990273 -0.862561951
3.142710021 -10.27390933 -0.882359556
3.022081364 -11.48380761 -0.861404368
3.107711948 -10.27205542 -0.881377331
2.987336984 -11.49495628 -0.861549029
3.07361193 -10.27294847 -0.880640678
2.951313361 -11.50116914 -0.861332009
3.036991036 -10.26512725 -0.87916737
2.910870525 -11.48986533 -0.859812626
3.007442512 -10.28109201 -0.87974029
2.876090474 -11.50067667 -0.859957346
2.974225123 -10.28452589 -0.879249207
2.84174922 -11.51331949 -0.860246727
2.939919266 -10.28401959 -0.878430657
0.950648582 -3.871286401 -0.585020493
2.805941551 -11.52004612 -0.860102066
2.906186478 -10.28531804 -0.87777584
0.92362201 -3.81168257 -0.575582337
2.873813774 -10.2913061 -0.877530328
2.845938497 -10.3135242 -0.878676227
0.894539123 -3.793203202 -0.571952236
2.814545732 -10.3231685 -0.878758065
0.887156235 -3.81423971 -0.574711096
4.129825406 -11.82343529 -0.808350381
2.780010262 -10.32116884 -0.877857736
0.87522893 -3.815979262 -0.574565899
4.078528076 -11.79266585 -0.805387494
2.746282209 -10.32194478 -0.87720292
4.088559144 -11.94013089 -0.8145982
2.709282696 -10.31007922 -0.875484041
0.852013315 -3.822243369 -0.574711096
4.060878574 -11.97908057 -0.816401657
2.677388799 -10.31737815 -0.875402145
0.840707416 -3.826771977 -0.57500149
4.378420448 -13.0473008 -0.888283667
2.644238551 -10.31975081 -0.874911062
0.826241758 -3.816762231 -0.57311387
4.340887891 -13.06824874 -0.888798949
2.610610382 -10.32008492 -0.874256245
0.815353687 -3.823149658 -0.573694716
4.303579418 -13.09003724 -0.889378664
2.579902235 -10.33191313 -0.874583653
0.80260362 -3.820791827 -0.572968673
4.265869881 -13.11077041 -0.889893946
2.546761366 -10.33397326 -0.87409257
0.94703808 -3.852337444 -0.471846825
0.937002435 -3.821006755 -0.615026801
4.240919039 -13.17129126 -0.893114445
0.930064696 -3.833994542 -0.46924842
0.774998094 -3.805285149 -0.569919419
0.925043023 -3.822903053 -0.614872364
4.203216571 -13.19279768 -0.893694159
0.763514462 -3.808615082 -0.570064617
0.916980834 -3.841099 -0.617343574
4.167522017 -13.22085909 -0.894724724
0.896254575 -3.796139806 -0.463933504
0.751060203 -3.807056658 -0.569483827
0.905192189 -3.843894226 -0.617343574
4.143281515 -13.28597972 -0.898267266
0.887982005 -3.81337853 -0.465705133
0.738811197 -3.806429198 -0.569048236
0.884677863 -3.809120332 -0.611319988
3.430321681 -11.1196974 -0.751089569
0.874945134 -3.810277938 -0.464996493
0.724346653 -3.794100096 -0.566870164
0.874752019 -3.819520967 -0.612555592
3.421528915 -11.21320874 -0.756693241
0.859304452 -3.795511461 -0.462870515
0.710512451 -3.784635534 -0.565127742
0.858459997 -3.801948116 -0.609312086
3.381344938 -11.20454573 -0.755405065
0.845709294 -3.789407622 -0.461807526
0.699436714 -3.789716593 -0.565563334
0.844215941 -3.792991166 -0.607458679
3.353803039 -11.23781712 -0.756950912
0.830239814 -3.774527532 -0.459681576
0.688866259 -3.797685561 -0.566434573
0.834057071 -3.802318707 -0.608539848
3.960745834 -13.42166931 -0.903226909
0.819497224 -3.780938876 -0.460154003
0.682246291 -3.828028625 -0.570645462
0.821344202 -3.800031142 -0.607767552
3.927096927 -13.45962308 -0.904965994
0.808930408 -3.78829072 -0.460744565
0.671351903 -3.834976811 -0.571371448
0.813179942 -3.818960856 -0.610393255
3.898507179 -13.51571423 -0.907928822
0.799143751 -3.799500356 -0.461807526
0.66192987 -3.850669659 -0.573404264
0.798417737 -3.806933281 -0.608076482
3.84881444 -13.49882013 -0.905996558
0.946850299 -3.857781171 -0.510904374
0.651923951 -3.863414168 -0.575001491
3.813066715 -13.53073548 -0.907349166
0.679345031 -4.102590711 -0.61028571
0.778390453 -3.828219906 -0.610702128
3.772072495 -13.54429301 -0.907477972
0.686853212 -4.214901271 -0.467393947
0.669134828 -4.119304546 -0.612463724
3.731560732 -13.55965052 -0.907735642
0.676899408 -4.235638991 -0.469461123
0.659917923 -4.142833764 -0.615658175
3.6878481 -13.56333165 -0.907220361
0.665286197 -4.246534748 -0.47044028
0.653157843 -4.182963539 -0.621321092
3.647772195 -13.58036367 -0.907606777
0.65150067 -4.243642714 -0.469896297
0.640620919 -4.186904184 -0.621611488
3.62323726 -13.65611668 -0.911922273
0.637295623 -4.23775753 -0.46902592
0.628212592 -4.191785103 -0.622047078
3.583347572 -13.67489093 -0.912437555
0.625449877 -4.247560722 -0.469896298
0.844162943 -3.789127748 -0.499295833
0.614200274 -4.185861319 -0.620885444
3.553876181 -13.73412522 -0.915658113
0.613124576 -4.254378872 -0.47044028
0.600933455 -4.184787874 -0.620449853
3.500607629 -13.70145432 -0.912759599
0.600485776 -4.259192835 -0.470766674
0.682916667 -3.826136074 -0.462279981
0.818590345 -3.783572565 -0.497892562
0.588091874 -4.186611645 -0.620449852
0.686975498 -3.861732956 -0.613173393
3.460996282 -13.72180622 -0.913403746
0.580220878 -4.208823345 -0.465000402
0.672375437 -3.83505987 -0.463106728
0.808839502 -3.794796607 -0.499040667
0.57376389 -4.177614026 -0.618852626
0.679205989 -3.887180533 -0.616880207
3.433347454 -13.79046118 -0.917268333
0.563987292 -4.185954445 -0.462280463
0.661785813 -3.843955006 -0.463933504
0.789653478 -3.761345476 -0.494320695
0.556469572 -4.146014278 -0.613915754
0.670117253 -3.905800223 -0.61950591
0.5510126 -4.186679408 -0.462171684
0.650982445 -3.851841821 -0.464642173
0.782527786 -3.785118797 -0.497127179
0.9292018 -3.792558514 -0.540784183
0.538860073 -4.110423358 -0.608398089
0.65714682 -3.901992298 -0.618579179
0.5251167 -4.086796936 -0.450965536
0.664670143 -4.007621064 -0.483185356
0.771900663 -3.792361307 -0.497765008
0.913837741 -3.779986432 -0.538589184
0.525367766 -4.105187369 -0.607381652
0.64839442 -3.923485299 -0.621668247
0.509113616 -4.060770781 -0.447919201
0.661939675 -4.068448152 -0.490271873
0.759872515 -3.792766391 -0.497509898
0.90292606 -3.785662837 -0.539000754
0.51228047 -4.102852889 -0.606800864
0.495567256 -4.053433265 -0.446940045
0.650862872 -4.079285017 -0.491334861
0.499451498 -4.102440972 -0.606510413
0.482776316 -4.051973208 -0.44661365
0.654303361 -4.183294385 -0.503618246
0.883934651 -3.809465179 -0.541607265
0.485347808 -4.091181443 -0.604622793
0.471144823 -4.060347402 -0.447375219
0.630183295 -4.111666463 -0.494760042
0.726047948 -3.80544518 -0.498275283
0.459801114 -4.071651725 -0.448463183
0.622283536 -4.14500466 -0.498539515
0.860543596 -3.814817226 -0.541607266
0.448826545 -4.086877044 -0.449986351
0.614618348 -4.181279653 -0.502673393
0.695668457 -3.771788577 -0.493300201
0.848190825 -3.814538548 -0.541195696
0.435864135 -4.084281015 -0.449551177
0.599525078 -4.167419467 -0.500783628
0.424151278 -4.093509083 -0.450421553
0.576911746 -4.099423915 -0.49239785
0.411988251 -4.098747419 -0.450856756
0.55539814 -4.036248668 -0.484602637
0.666564518 -3.810272504 -0.4975099
0.812016347 -3.8173392 -0.540509766
0.39950791 -4.100981171 -0.450965534
0.541291972 -4.025139705 -0.483067221
0.662427845 -3.856287527 -0.503250364
0.798066764 -3.809148106 -0.539000754
0.386737729 -4.10020843 -0.450747948
0.52829386 -4.021858461 -0.482476658
0.650758696 -3.859279867 -0.503377919
0.373705091 -4.09642586 -0.450203966
0.516962956 -4.031340199 -0.48342157
0.659154906 -3.983573808 -0.51932377
0.360612024 -4.091611859 -0.449551176
0.504592544 -4.032906878 -0.483421569
0.662662633 -4.082499964 -0.531952862
0.764528013 -3.824102591 -0.540098254
0.349489429 -4.109537235 -0.451400738
0.492457867 -4.036407568 -0.483657783
0.651849554 -4.0952883 -0.533356075
0.750880138 -3.816710912 -0.538726394
0.337448268 -4.117525293 -0.452162307
0.481596066 -4.050718118 -0.485193199
0.638823634 -4.094328896 -0.532973412
0.735779015 -3.801491655 -0.536257034
0.325126929 -4.122504954 -0.452597509
0.472249997 -4.0788097 -0.488382166
0.629257264 -4.115878067 -0.535524729
0.722816056 -3.796919636 -0.535296743
0.313379098 -4.135377669 -0.45390306
0.463514323 -4.113789157 -0.492397852
0.623090001 -4.160948614 -0.54113764
0.711892911 -3.803013932 -0.535845522
0.300474239 -4.133345377 -0.453576666
0.454784735 -4.150726948 -0.496649807
0.61449382 -4.19129963 -0.54483712
0.701656193 -3.812973414 -0.536942963
0.288413185 -4.143172948 -0.454555851
0.442363717 -4.155064775 -0.497004098
0.603181716 -4.20396471 -0.546240334
0.689778574 -3.814133525 -0.536805812
0.276426615 -4.154948845 -0.455752623
0.426142844 -4.122819619 -0.492988414
0.589729884 -4.201866391 -0.545730058
0.679460041 -3.82403377 -0.537903254
0.264999974 -4.1766105 -0.458037386
0.413195034 -4.121143503 -0.492634065
0.575622419 -4.19481226 -0.544581953
0.669427799 -3.835858475 -0.539275115
0.252963786 -4.190303222 -0.459451745
0.400357543 -4.120414828 -0.492397851
0.561563839 -4.187711355 -0.543433849
0.659664017 -3.849610027 -0.540921336
0.240902918 -4.204953881 -0.460974913
0.387342388 -4.117669096 -0.491925424
0.541629144 -4.13532566 -0.536417725
0.649000617 -3.858453204 -0.541881625
0.227516865 -4.196739692 -0.459995728
0.379745814 -4.174217553 -0.498539514
0.523027512 -4.09072858 -0.530422095
0.670711716 -4.063709607 -0.570416158
0.216772565 -4.239114081 -0.464565228
0.36806782 -4.188222565 -0.500074988
0.511211505 -4.098218767 -0.531187477
0.663781997 -4.099971533 -0.575217668
0.202811728 -4.219901108 -0.462389272
0.355132915 -4.188342522 -0.499956853
0.496839708 -4.084999397 -0.529273989
0.65182157 -4.105901797 -0.575766389
0.33993664 -4.160710999 -0.496531672
0.486055684 -4.101278564 -0.531187478
0.641506332 -4.12256371 -0.577824179
0.327092328 -4.160744105 -0.496413593
0.47585869 -4.123441385 -0.533866349
0.632140097 -4.146055788 -0.580842261
0.313802315 -4.154797162 -0.495586819
0.46719048 -4.160365138 -0.538458769
0.623952393 -4.178345466 -0.585094992
0.300767097 -4.151778445 -0.495114391
0.45377849 -4.15586267 -0.537693383
0.618581517 -4.231206803 -0.592228597
0.288096911 -4.153672548 -0.49523247
0.437364219 -4.122715125 -0.53322852
0.600968166 -4.20072602 -0.587701503
0.275746301 -4.160481857 -0.495941111
0.425729911 -4.13390386 -0.53450418
0.588489479 -4.205492992 -0.588113073
0.263043461 -4.162299126 -0.496059245
0.413439587 -4.139137816 -0.535014453
0.575181647 -4.20433474 -0.587701505
0.098955696 -4.213669167 -0.461301307
0.250332039 -4.16407774 -0.496177381
0.400643391 -4.139399754 -0.5348869
0.556767673 -4.164843505 -0.581939703
0.085906144 -4.207990011 -0.460648518
0.23732947 -4.1608605 -0.495704896
0.386739219 -4.12777172 -0.53322852
0.538216791 -4.122332415 -0.575766389
0.072788918 -4.196306494 -0.459342937
0.224884048 -4.167518527 -0.496413594
0.375057983 -4.13980431 -0.53463179
0.52381398 -4.11020773 -0.573845807
0.059687436 -4.180607028 -0.457602185
0.212601854 -4.178106138 -0.497594662
0.364776362 -4.168601028 -0.538203658
0.510223878 -4.103931886 -0.572748309
0.057410422 -4.168944625 -0.611882936
0.046616119 -4.158902247 -0.45520864
0.200778432 -4.199567513 -0.500074987
0.353570721 -4.188478472 -0.540627421
0.497153998 -4.101544606 -0.572199588
0.044598833 -4.167122305 -0.611592541
0.0338242 -4.155049746 -0.454773438
0.187627132 -4.194212013 -0.499366291
0.342809285 -4.215246653 -0.543944125
0.484916841 -4.106001328 -0.572611156
0.031685669 -4.150420247 -0.609124075
0.020985769 -4.137240671 -0.452815096
0.175213263 -4.205681206 -0.500665492
0.32964339 -4.213312065 -0.543561461
0.018852817 -4.128731392 -0.605929624
0.008238996 -4.110446049 -0.449877571
0.162539323 -4.212152639 -0.50137419
0.317161538 -4.220237553 -0.544326844
0.006165206 -4.114917946 -0.603896806
-0.00434634 -4.086594439 -0.447266411
0.149404395 -4.206677363 -0.500665493
0.303143124 -4.206351926 -0.542413356
-0.006443684 -4.105023592 -0.602444778
-0.016846852 -4.077615353 -0.446287255
0.13665878 -4.212078238 -0.501256055
0.290578091 -4.212209708 -0.543051187
-0.019010157 -4.099048328 -0.601573539
-0.029349565 -4.076550783 -0.446178448
0.123735663 -4.212477538 -0.501256054
0.277262522 -4.207143117 -0.542285744
-0.031479037 -4.085119386 -0.599540721
-0.041896933 -4.08041716 -0.44661365
0.110863609 -4.214822781 -0.501492268
0.26354546 -4.19510561 -0.540627423
-0.044193066 -4.10182243 -0.60200913
-0.054653886 -4.098161377 -0.448571992
0.097655414 -4.203230045 -0.500074987
0.25014147 -4.186983857 -0.539479318
-0.056338849 -4.070009645 -0.597362707
-0.067275522 -4.100956246 -0.448898387
0.084719592 -4.201524499 -0.499838717
0.236789806 -4.178819157 -0.538331213
-0.068775009 -4.066849969 -0.596927058
-0.08014708 -4.115638638 -0.450530362
0.071506615 -4.182900265 -0.497594661
0.22359674 -4.172593243 -0.537438218
-0.081607366 -4.084425524 -0.599540721
-0.092862919 -4.119348503 -0.450965535
0.058353002 -4.160263417 -0.494878179
0.210694277 -4.171278243 -0.537183108
-0.09438861 -4.095036362 -0.601137947
-0.106213132 -4.146868727 -0.454011868
0.045404251 -4.143542659 -0.492870278
0.198083977 -4.175867886 -0.537693383
-0.107184065 -4.10362919 -0.602444779
-0.118935051 -4.146523513 -0.454011869
0.032566481 -4.12777507 -0.490980571
0.185403515 -4.179428483 -0.538076046
-0.120495018 -4.128005771 -0.606074822
-0.132002888 -4.15706828 -0.455208641
0.019811528 -4.108988596 -0.488736457
0.173071326 -4.191869663 -0.539606872
-0.134371278 -4.165194456 -0.611592543
-0.144790576 -4.157637108 -0.455317448
0.007172151 -4.090162994 -0.4864924
0.160247917 -4.193372167 -0.539734427
-0.146869786 -4.156852311 -0.610430908
-0.157582978 -4.158166807 -0.455426228
-0.005371105 -4.086193701 -0.486019973
0.146964071 -4.181949016 -0.538203658
-0.157761655 -4.10793701 -0.603315962
-0.170868318 -4.170575923 -0.456840616
-0.017933456 -4.092116366 -0.486728615
0.134196927 -4.18436317 -0.538458768
-0.184449979 -4.187907877 -0.458798957
-0.030532196 -4.097999902 -0.487437255
0.121243833 -4.18078965 -0.537948493
0.422793279 -6.740110645 -0.684909331
-0.202116409 -4.289597065 -0.470005105
-0.043188095 -4.105830337 -0.488382166
0.10887956 -4.198988483 -0.540244701
0.401579779 -6.732437553 -0.684001254
-0.218415188 -4.351504177 -0.476859342
-0.05558204 -4.090784956 -0.486610479
0.095747386 -4.188395858 -0.538841489
-0.232293179 -4.360740304 -0.477947306
-0.068165203 -4.092580958 -0.486846693
0.082916746 -4.18966119 -0.538969042
-0.241252714 -4.281600357 -0.469352316
-0.080857821 -4.099302183 -0.487673468
0.069714417 -4.169070659 -0.536290114
-0.253031076 -4.258016678 -0.466849964
-0.093637585 -4.107969351 -0.488736457
0.056693372 -4.152405422 -0.534121517
-0.269131887 -4.305834566 -0.472181033
-0.10621454 -4.106670117 -0.488618379
0.043922213 -4.149584167 -0.533738795
-0.283056352 -4.315900272 -0.473377806
-0.119789596 -4.140072678 -0.492634064
0.03110926 -4.138789688 -0.532335582
-0.296976975 -4.324928828 -0.474465799
-0.132998824 -4.155565683 -0.494523829
0.018349716 -4.124980138 -0.530549648
-0.308821484 -4.304166951 -0.472289842
-0.145990972 -4.16208506 -0.495350606
0.005672461 -4.109147814 -0.528508548
-0.321431567 -4.295268753 -0.471419464
-0.159024356 -4.1685634 -0.496177381
-0.006944295 -4.115096904 -0.52927399
-0.330206018 -4.237772234 -0.465218019
-0.172344254 -4.180954015 -0.497712797
-0.019564485 -4.114064115 -0.529146376
-0.349707088 -4.316995388 -0.474030596
-0.185434075 -4.186357505 -0.498421436
-0.032054255 -4.097124485 -0.526977781
0.12212944 -4.271467516 -0.591817086
-0.363699522 -4.32481739 -0.475009781
-0.199122494 -4.203623242 -0.500547416
-0.044461872 -4.08213032 -0.525064293
0.108720919 -4.259939093 -0.590170863
-0.377570568 -4.33061328 -0.475771378
-0.212668464 -4.215885021 -0.502082831
-0.057234668 -4.099825696 -0.527360443
0.09487291 -4.225592548 -0.585369354
-0.390050505 -4.320524261 -0.474792194
-0.225548542 -4.214221217 -0.501964696
-0.069694272 -4.09268927 -0.526467506
0.081754962 -4.217940746 -0.584271854
-0.402564541 -4.311388884 -0.473921816
-0.237747071 -4.200620718 -0.500429279
-0.082569017 -4.108322264 -0.528508549
0.068394026 -4.19242087 -0.580705051
-0.414930712 -4.30122875 -0.472942632
-0.250633265 -4.199871902 -0.50042928
-0.09526467 -4.112015703 -0.529018823
0.055334757 -4.177754252 -0.578647262
-0.423594316 -4.254433184 -0.467937956
-0.263641506 -4.201065214 -0.500665493
-0.107983766 -4.11567001 -0.529529098
0.042235086 -4.15017056 -0.574806099
-0.434106697 -4.228391922 -0.465218018
-0.276594196 -4.201227573 -0.500783629
-0.120639009 -4.116310676 -0.529656652
0.029382646 -4.133441557 -0.572473948
-0.44550888 -4.212212094 -0.463586044
-0.289345513 -4.19837772 -0.500547415
-0.133202913 -4.113938654 -0.529401544
0.01666927 -4.125587892 -0.571376448
-0.456815845 -4.196002191 -0.461954098
-0.302652472 -4.203412814 -0.501256055
-0.146772399 -4.140273152 -0.532845857
0.004013993 -4.12760091 -0.571650867
-0.470018715 -4.197544423 -0.462280463
-0.315249551 -4.198503914 -0.500783629
-0.160237463 -4.159625292 -0.535397175
-0.008655554 -4.130565186 -0.572062378
-0.482098821 -4.189169837 -0.461518894
-0.328593223 -4.20345645 -0.501492267
-0.173492906 -4.171005637 -0.536927942
-0.021230732 -4.111699347 -0.569455867
-0.49471538 -4.185696624 -0.461301307
-0.341326832 -4.200449111 -0.501256054
-0.186686881 -4.179371386 -0.538076046
-0.033755459 -4.100718934 -0.567946854
-0.505759018 -4.169356877 -0.459669333
-0.354128565 -4.198393029 -0.50113792
-0.199177047 -4.171844122 -0.537183108
-0.04624659 -4.092672466 -0.566849356
-0.518302596 -4.165812541 -0.459451745
-0.366920906 -4.196297337 -0.501019841
-0.211773794 -4.167251281 -0.536672834
-0.058930595 -4.101425417 -0.568084007
-0.525421494 -4.11982966 -0.454555851
-0.380151346 -4.199107787 -0.501492268
-0.224771244 -4.170543388 -0.537183108
-0.071668741 -4.110138758 -0.569318716
-0.393587637 -4.203853686 -0.502200908
-0.237678066 -4.171814626 -0.537438217
-0.084765518 -4.133667397 -0.572611156
-0.535532613 -4.003219886 -0.442044149
-0.407916997 -4.217452509 -0.503972596
-0.251070433 -4.180966519 -0.538713877
-0.097283609 -4.12645622 -0.571650867
-0.549025224 -4.010422351 -0.443023336
-0.420262253 -4.210252613 -0.503263898
-0.26414622 -4.184135982 -0.539224152
-0.10991656 -4.125148254 -0.571513658
-0.562429268 -4.016594332 -0.443893711
-0.432363863 -4.201040906 -0.502319043
-0.277243849 -4.187264403 -0.539734426
-0.122866035 -4.134692593 -0.572885518
-0.572693244 -4.074875869 -0.603896808
-0.576298905 -4.025674501 -0.445090484
-0.444831681 -4.19574495 -0.501846617
-0.290431694 -4.191341696 -0.540372257
-0.135842649 -4.143206454 -0.57412017
-0.586036282 -4.078975402 -0.604767989
-0.597711764 -4.08585393 -0.45194472
-0.456840185 -4.186463552 -0.500901707
-0.303933572 -4.19933379 -0.54152036
-0.150789466 -4.205134151 -0.582762841
-0.598978796 -4.080095132 -0.605203639
-0.616267263 -4.124310047 -0.456405412
-0.469571187 -4.184055249 -0.500783628
-0.317487201 -4.207282934 -0.542668465
-0.1634202 -4.197723492 -0.581802552
-0.612227107 -4.083130745 -0.605929625
-0.633415225 -4.151880882 -0.459669333
-0.483088144 -4.18851384 -0.501492269
-0.329927488 -4.200356155 -0.541903081
-0.177212401 -4.218975006 -0.584820632
-0.625499646 -4.086123393 -0.606655611
-0.638503293 -4.100806446 -0.454229455
-0.496286408 -4.189970226 -0.501846617
-0.342166841 -4.191416135 -0.540882532
-0.190779682 -4.232265212 -0.586741214
-0.640170721 -4.097870723 -0.608688485
-0.646247024 -4.068393941 -0.450856756
-0.509378383 -4.190399467 -0.502082831
-0.353935787 -4.177498854 -0.539224152
-0.204096686 -4.238585457 -0.587701504
-0.65741115 -4.125199609 -0.613044513
-0.674939444 -4.166481709 -0.461954097
-0.523214749 -4.196699966 -0.503027684
-0.366403448 -4.172441172 -0.538713877
-0.216643428 -4.229036051 -0.586466852
-0.674349067 -4.149531047 -0.616965007
-0.693225777 -4.197738319 -0.465653193
-0.535709947 -4.192119954 -0.502673393
-0.378214865 -4.160432123 -0.537310663
-0.227844428 -4.19571151 -0.581939702
-0.684165824 -4.129872774 -0.614351343
-0.247194591 -4.331696492 -0.440024989
-0.706265935 -4.196571864 -0.465762
-0.549084253 -4.194395391 -0.503145821
-0.390977103 -4.15925201 -0.537310663
-0.697821051 -4.13360808 -0.615222584
-0.260423144 -4.329924648 -0.439924079
-0.718297634 -4.189486384 -0.465218018
-0.556145714 -4.149386184 -0.49794901
-0.405077627 -4.171853884 -0.539096598
-0.712008719 -4.140223429 -0.616529415
-0.273203732 -4.321161867 -0.439116882
-0.729950487 -4.180408153 -0.46445642
-0.556189629 -4.055184031 -0.486846693
-0.419456907 -4.186381667 -0.54113764
-0.727608958 -4.154587328 -0.618997824
-0.286459579 -4.320303586 -0.439116883
-0.743468314 -4.182063956 -0.464891623
-0.567524584 -4.045591821 -0.48590184
-0.433113829 -4.19296769 -0.54215819
-0.74781938 -4.19421925 -0.62524153
-0.299850491 -4.321389342 -0.439318704
-0.759481079 -4.197370604 -0.466849964
-0.578382955 -4.033018861 -0.484602636
-0.446920056 -4.200495429 -0.543306294
-0.312819262 -4.316479795 -0.438915091
-0.769294972 -4.178401194 -0.465000403
-0.589745483 -4.024347816 -0.48377586
-0.459480992 -4.196146547 -0.542923573
-0.750007383 -4.062094341 -0.606220018
-0.754661616 -4.029459753 -0.448680798
-0.607675038 -4.059838047 -0.48826403
-0.472463425 -4.195702923 -0.543051186
-0.731784941 -3.896410982 -0.581826042
-0.338518785 -4.304560621 -0.437906102
-0.733542166 -3.851353947 -0.429097246
-0.631978086 -4.135501288 -0.49759466
-0.484649399 -4.188322232 -0.542285745
-0.73297015 -3.837781083 -0.573404265
-0.35237175 -4.311434584 -0.438713299
-0.740251966 -3.822735107 -0.42615972
-0.638082914 -4.091353904 -0.492515986
-0.497262661 -4.184845845 -0.542030636
-0.741346263 -3.818031476 -0.570790659
-0.366690464 -4.323220893 -0.44002499
-0.748328889 -3.80191441 -0.424092572
-0.654064628 -4.110951973 -0.495114392
-0.509018736 -4.174439543 -0.540882531
-0.749608084 -3.798267025 -0.568176997
-0.380910559 -4.332977275 -0.441134887
-0.754725293 -3.773282351 -0.421155018
-0.675261612 -4.161855785 -0.501492268
-0.522930998 -4.181715754 -0.542030635
-0.758339263 -3.781397871 -0.565998982
-0.392218525 -4.309990649 -0.438915091
-0.764516394 -3.762181633 -0.420175861
-0.6902954 -4.17348009 -0.503145819
-0.534749165 -4.17222156 -0.541010085
-0.760455854 -3.732518339 -0.559029233
-0.405812365 -4.312728879 -0.439318703
-0.775050273 -3.75495087 -0.41963188
-0.703096211 -4.171342828 -0.50314582
-0.547934128 -4.173511474 -0.541392806
-0.767893629 -3.71079033 -0.556125177
-0.786158783 -3.750609446 -0.419414264
-0.715050153 -4.164272637 -0.502555257
-0.558886003 -4.158049103 -0.539606873
-0.769915115 -3.66387715 -0.549445879
-0.800972428 -3.763736418 -0.421155017
-0.725769978 -4.15032116 -0.501137918
-0.557990987 -4.057074051 -0.526722614
-0.787551637 -3.69149427 -0.553947162
-0.812935475 -3.763204808 -0.421372633
-0.740588223 -4.159806657 -0.502555257
-0.56919191 -4.046503466 -0.525574508
-0.806621168 -3.724839331 -0.559319628
-0.824051239 -3.758750915 -0.421155017
-0.748212376 -4.129179608 -0.499130077
-0.578356878 -4.022158443 -0.522640528
-0.834931452 -3.753294174 -0.420828651
-0.74827378 -4.05850677 -0.490862436
-0.589540553 -4.012514741 -0.521619978
-0.844473006 -3.741987774 -0.419849466
-0.750837288 -4.003488921 -0.484484559
-0.600523326 -4.001859623 -0.520471874
-0.855283856 -3.736472498 -0.419523072
-0.735769103 -3.85777993 -0.467122471
-0.628568556 -4.102939802 -0.533866351
-0.724434913 -3.786500491 -0.60267064
-0.86854137 -3.741577278 -0.420393448
-0.736448607 -3.797988597 -0.460154003
-0.647894192 -4.144108686 -0.539479318
-0.733218847 -3.769712778 -0.600353867
-0.882293744 -3.74857146 -0.421481413
-0.74310476 -3.770380618 -0.457083171
-0.663260628 -4.158752024 -0.541647915
-0.743631031 -3.761630143 -0.599427192
-0.539766707 -4.313059329 -0.440832185
-0.891944325 -3.738111433 -0.420611035
-0.752328536 -3.75639916 -0.455665862
-0.677130853 -4.163550534 -0.542540911
-0.553502692 -4.315330358 -0.441235798
-0.905277964 -3.743087035 -0.421481412
-0.762265574 -3.746288848 -0.45472098
-0.689252382 -4.157539575 -0.542030636
-0.916993968 -3.741257627 -0.42159022
-0.773755417 -3.743932568 -0.45472098
-0.701673889 -4.153449267 -0.541775526
-0.929665707 -3.743250479 -0.422134202
-0.784422164 -3.737653767 -0.454248524
-0.713572123 -4.146389644 -0.541137639
-0.94260082 -3.74616475 -0.422786992
-0.796092405 -3.736200976 -0.45436666
-0.722351783 -4.121711315 -0.538203658
-0.553912777 -4.015285318 -0.561361971
-0.928213671 -3.681111371 -0.557141613
-0.955808075 -3.749998293 -0.42354859
-0.806711453 -3.729858638 -0.453894204
-0.727850988 -4.079443364 -0.532973412
-0.568858021 -4.032203068 -0.563968484
-0.968550759 -3.75186076 -0.424092572
-0.821131247 -3.740944877 -0.455547727
-0.746033647 -4.108418649 -0.537055554
-0.581508683 -4.032399523 -0.564242843
-0.954004385 -3.687799066 -0.559029233
-0.981565292 -3.754642021 -0.424745361
-0.830229842 -3.727746214 -0.454248524
-0.743858352 -4.026133943 -0.526595058
-0.594310342 -4.033536255 -0.564654412
-0.967319789 -3.692511678 -0.560190868
-0.625064553 -4.162739894 -0.426907973
-0.993842986 -3.754495906 -0.425071728
-0.842537912 -3.729055976 -0.45472098
-0.735323259 -3.91270981 -0.512052479
-0.608008839 -4.040509903 -0.565889065
-1.962593005 -7.343285769 -0.551382729
-0.638435697 -4.164736427 -0.427311586
-1.011017926 -3.772553212 -0.427465272
-0.85375267 -3.725485722 -0.454602873
-0.731126213 -3.825680227 -0.500954155
-0.626267716 -4.07680899 -0.571239297
-0.9948337 -3.704662263 -0.562949728
-1.971828129 -7.288129043 -0.547692844
-0.651056153 -4.161775242 -0.427210676
-1.016861426 -3.74832715 -0.425071728
-0.865403089 -3.723816078 -0.45472098
-0.740022246 -3.808814794 -0.499040667
-0.651351356 -4.15511309 -0.582488481
-1.966781629 -7.182001215 -0.540168413
-0.880922945 -3.738541222 -0.456846958
-0.745939443 -3.7773352 -0.49521369
-0.665816412 -4.163854706 -0.583997494
-1.980016006 -7.144215524 -0.53778083
-0.678497668 -4.169485996 -0.428421485
-0.892849913 -3.737752642 -0.457083172
-0.75342678 -3.754607657 -0.49253476
-0.681457146 -4.179389772 -0.586466853
-1.986303722 -7.082408609 -0.533584485
-0.700729143 -4.224310669 -0.434273677
-0.907117047 -3.746577033 -0.45850048
-0.771678277 -3.785321104 -0.49687207
-0.693788859 -4.174347833 -0.586055283
-1.967453919 -6.933316578 -0.52280427
-0.714183347 -4.225083899 -0.434576379
-0.917660593 -3.739918929 -0.458028025
-0.776651508 -3.750885185 -0.492662372
-0.706923138 -4.174152894 -0.586329643
-1.968624981 -6.857265911 -0.517522702
-0.725285252 -4.212087932 -0.433466482
-0.924817558 -3.71974004 -0.455902076
-0.788767628 -3.751396602 -0.493045035
-0.721241517 -4.180749494 -0.587564352
-1.987150203 -6.84257362 -0.516871522
-0.738204322 -4.209842691 -0.433466481
-0.937195393 -3.720736941 -0.456374503
-0.799858955 -3.747019186 -0.492789927
-0.725323575 -4.128761352 -0.5805679
-2.002230437 -6.816348942 -0.515352198
-0.753214568 -4.219311383 -0.43467729
-0.946151071 -3.708222353 -0.455193407
-0.812821088 -3.751333019 -0.493682865
-0.725082691 -4.054361333 -0.570416158
-1.931108205 -6.50040365 -0.491910646
-0.766333507 -4.217959639 -0.434778201
-0.957026367 -3.703379286 -0.454957193
-0.823687219 -3.745915499 -0.493300201
-0.735921541 -4.043346748 -0.569181506
-1.950755068 -6.493493102 -0.491838286
-0.77420671 -4.188195506 -0.431953
-0.972657392 -3.71675681 -0.456965065
-0.833879765 -3.737562744 -0.492534761
-0.746879972 -4.033278152 -0.568084007
-1.960811471 -6.455030634 -0.489378401
-0.987616491 -3.727193604 -0.458618588
-0.848845634 -3.750464703 -0.494575861
-0.742382218 -3.941412378 -0.555462962
-1.97533518 -6.431823056 -0.48807607
-1.006250811 -3.7510006 -0.461925633
-0.858128806 -3.738175768 -0.493300201
-0.73117896 -3.817508337 -0.538314824
-1.972704673 -7.281097241 -0.619534247
-1.014631231 -3.73639614 -0.460508323
-0.871392335 -3.743253652 -0.494320695
-0.739479683 -3.797746188 -0.535845522
-1.955496572 -7.130836772 -0.607256524
-0.881049682 -3.732840223 -0.493300202
-0.749781419 -3.788657743 -0.534885174
-1.973366652 -7.110398485 -0.606028787
-0.891343691 -3.725296571 -0.492662372
-0.756909895 -3.764004084 -0.531729941
-1.985740136 -7.070727847 -0.60316395
-0.901833528 -3.718688881 -0.492152097
-0.771824564 -3.778162763 -0.534062092
-2.006061442 -7.059808986 -0.602754704
-0.91300134 -3.71494143 -0.492024486
-0.77817999 -3.750559983 -0.53049529
-1.969886749 -6.852472238 -0.585565858
-0.935419027 -3.756394971 -0.497892562
-0.790499738 -3.752031812 -0.53104401
-1.968915427 -6.770792971 -0.579099588
-0.938447426 -3.719848133 -0.493427756
-0.801385569 -3.746683138 -0.530632441
-1.98461663 -6.747509965 -0.57762628
-0.946908533 -3.70542003 -0.491896931
-0.812666276 -3.743238889 -0.53049529
-1.994226162 -6.704133912 -0.574434093
-0.949822643 -3.669851038 -0.487559679
-0.823720305 -3.738793456 -0.53022093
-1.974305331 -6.563413857 -0.562893025
-0.968117963 -3.69378362 -0.491131547
-0.83518686 -3.736248632 -0.530220929
-1.976161342 -6.497254361 -0.557736388
-0.98478816 -3.710927633 -0.493810419
-0.84686466 -3.734634766 -0.530358081
-1.98729725 -6.462582246 -0.555280797
-1.013153029 -3.771108031 -0.502229872
-0.859206467 -3.735880426 -0.530906802
-2.003564578 -6.445034221 -0.554298572
-1.977675394 -7.28062433 -0.69071446
-1.027320671 -3.777552617 -0.50350553
-0.873138662 -3.743837979 -0.532415871
-2.014364676 -6.410332845 -0.551843039
-1.994986927 -7.256278625 -0.688982229
-0.885532242 -3.744997434 -0.532964592
-1.988164299 -6.259740402 -0.539401642
-1.985207093 -7.134997096 -0.678041619
-0.898402922 -3.74804271 -0.533787731
-1.97994492 -6.168205106 -0.532034985
-2.001689919 -7.10970138 -0.676218193
-0.911300629 -3.751044047 -0.534610813
-1.997014315 -6.156413581 -0.531543843
-1.955561184 -6.865050482 -0.653516512
-0.923751573 -3.752077882 -0.535159591
-1.977400109 -6.032821771 -0.521394304
-1.956759169 -6.790122538 -0.646952193
-2.040712021 -5.523935874 -0.644516241
-0.930703191 -3.730965419 -0.532553023
-1.977726241 -5.971852414 -0.516646914
-1.970614582 -6.760186009 -0.644672911
-2.043755955 -5.480392934 -0.640164327
-0.939232881 -3.716568181 -0.530906801
-1.998251875 -5.972372544 -0.517219834
-1.99106362 -6.753153317 -0.644581717
-2.032544142 -5.399670409 -0.631460559
-0.95726306 -3.739578505 -0.534610813
-1.959122528 -5.796263035 -0.502486578
-2.008927165 -6.737469765 -0.643670004
-2.027917465 -5.337653612 -0.624932717
-0.963759789 -3.717447295 -0.53186715
-1.973675724 -5.780793667 -0.501668087
-2.028438108 -6.727460968 -0.643305342
-2.015099936 -5.255296732 -0.616011331
-0.976669317 -3.72022145 -0.532690232
-1.976455545 -5.731370058 -0.497902862
-2.043260005 -6.70215515 -0.641481917
-2.029061132 -5.243527367 -0.615358542
-0.989859458 -3.723908672 -0.533650522
-1.979606567 -5.683867049 -0.49430143
-2.003974644 -6.501716972 -0.622882943
-2.042968957 -5.231722116 -0.614705753
-1.009516347 -3.751462707 -0.538040463
-2.003648769 -5.696570827 -0.495938472
-2.004064285 -6.431838153 -0.61677448
-2.027669343 -5.145892065 -0.605349135
-1.023624173 -3.757905172 -0.539412323
-1.958738157 -5.514773103 -0.480632208
-1.996863271 -6.340173984 -0.608569066
-2.033163685 -5.113782364 -0.602302801
-1.970937846 -5.495603926 -0.479486308
-2.011472251 -6.318835102 -0.607110302
-2.022936504 -5.042938578 -0.594686996
-1.980662754 -5.469851904 -0.4777674
-2.018039565 -6.272818852 -0.603281121
-2.028329607 -5.011829502 -0.5917495
-1.976218208 -5.405714385 -0.47269263
-1.992939359 -6.130223435 -0.590152423
-2.040314313 -4.997299927 -0.590770314
-1.999004647 -5.416455925 -0.474165938
-2.007696976 -6.111781062 -0.588967185
-2.023079208 -4.911969439 -0.581413698
-2.01317727 -5.403760332 -0.473592989
-2.014204318 -6.068732367 -0.585411529
-2.030892896 -4.888297676 -0.579346548
-2.015012462 -5.358377918 -0.470155231
-2.032813515 -6.062524491 -0.585411529
-2.032433372 -4.849955408 -0.575538646
-2.010929882 -5.298127131 -0.46540784
-2.042457909 -6.029850147 -0.582858722
-2.036079867 -4.817143838 -0.572383533
-2.016479202 -5.264012148 -0.462952278
-2.026453441 -5.92273904 -0.57310335
-2.036425763 -4.777040337 -0.568358015
-2.008541446 -5.195518045 -0.457468234
-2.00005342 -5.787546895 -0.560612897
-2.042826852 -4.751592285 -0.566073251
-1.97303562 -5.057485706 -0.445845298
-1.981046988 -5.676079677 -0.550401669
-1.985427446 -4.57931258 -0.54627211
-2.026510019 -5.147855389 -0.454357884
-2.009375687 -5.700968712 -0.553410332
-1.991503011 -4.554983859 -0.544096183
-1.998879947 -5.032316648 -0.444699399
-2.01951042 -5.674137499 -0.551404577
-1.998650834 -4.533389652 -0.542246651
-1.992064097 -4.970653232 -0.439788303
-2.018048702 -5.615434385 -0.546298963
-2.008511708 -4.518152972 -0.541158629
-2.008051836 -4.966366554 -0.439952008
-1.979222501 -5.454757154 -0.531255703
-2.060682915 -6.396800584 -0.681579636
-2.031715058 -4.532832905 -0.543661008
-1.996176363 -4.893738971 -0.434058688
-1.982931844 -5.413126502 -0.527791183
-2.047038236 -6.288277127 -0.670682418
-2.034968589 -4.503026167 -0.540832233
-1.995631313 -4.849803505 -0.430702768
-1.995730425 -5.396743314 -0.526788276
-2.047047033 -6.223372253 -0.664426613
-2.050010588 -4.499475363 -0.541158628
-1.996746188 -4.810520412 -0.427756123
-2.005660845 -5.372868901 -0.525056045
-2.031616516 -6.113208762 -0.653327631
-2.035590602 -4.431738781 -0.53376044
-2.013708245 -5.344325187 -0.522867958
-2.045295446 -6.09185657 -0.651713239
-2.023698432 -4.370447456 -0.527123761
-2.002838109 -5.266450645 -0.515847723
-2.051832515 -6.049749944 -0.64787905
-2.042563086 -4.375927958 -0.528538119
-2.005782922 -5.225882295 -0.512474398
-2.000736397 -5.840127938 -0.626084613
-2.051746632 -4.360646335 -0.527450156
-2.048302389 -4.801560946 -0.620900816
-2.021086903 -5.217846997 -0.512292068
-2.01734303 -5.830201895 -0.62568103
-2.038704921 -4.298644522 -0.520704698
-2.043009775 -4.748733773 -0.61487723
-2.017508636 -5.161536587 -0.507368784
-2.027999671 -5.803322756 -0.623461234
-2.046738585 -4.281607336 -0.519399176
-1.999865433 -4.609443958 -0.597633308
-2.013604014 -5.105298056 -0.502445559
-2.028577868 -5.74828771 -0.618214416
-2.055981396 -4.267247905 -0.518419991
-2.000862704 -4.573265265 -0.5937357
-2.03109845 -5.103722585 -0.502901415
-2.011805384 -5.64550876 -0.607821749
-2.049523524 -4.220680817 -0.513524067
-2.01448313 -4.566196858 -0.593617565
-2.002220276 -4.98657263 -0.491960806
-2.034842356 -5.655224173 -0.609537051
-2.048917052 -4.186693959 -0.510151339
-2.024850183 -4.551829359 -0.592554576
-1.993954389 -4.922258491 -0.486217033
-2.01753247 -5.553574634 -0.599245237
-2.049440351 -4.155425377 -0.507105063
-2.039211794 -4.546501588 -0.592672711
-1.999628178 -4.893072338 -0.483937751
-1.996192594 -5.44274444 -0.587944435
-2.072797619 -4.170482307 -0.509716164
-2.047422542 -4.527557103 -0.59101916
-2.007419171 -4.869421662 -0.482205491
-2.00389974 -5.412336535 -0.585320997
-2.094486101 -4.181879817 -0.51189215
-2.051416725 -4.499569724 -0.588184541
-1.996347743 -4.800714034 -0.476005833
-2.001338681 -5.354906633 -0.579771506
-2.105066582 -4.170997408 -0.51134814
-2.069358731 -4.502277631 -0.589365609
-2.01645938 -4.807423316 -0.477282237
-2.011436953 -5.331985797 -0.577955293
-2.046657217 -4.024520459 -0.494158159
-2.068967891 -4.465274381 -0.585349924
-1.998994643 -4.725091709 -0.46971501
-2.023183667 -5.313702564 -0.576643632
-2.014568953 -3.93152395 -0.483495992
-2.078875409 -4.450808208 -0.584286934
-2.010745797 -4.712525055 -0.469076822
-2.011997876 -5.235961433 -0.568874288
-2.026621185 -3.925324502 -0.483495991
-2.026957302 -4.305156814 -0.565979964
-2.022045217 -4.699016035 -0.468347441
-2.025174438 -5.222343337 -0.568067121
-2.033149433 -3.908506179 -0.482190412
-2.037175719 -4.292638197 -0.565153189
-2.028919912 -4.675433688 -0.466615182
-2.029584857 -5.186457778 -0.564838336
-2.042823776 -3.897847458 -0.481646429
-2.025483122 -4.234412186 -0.558302886
-2.002533142 -4.576131373 -0.457315694
-2.030871312 -5.143192088 -0.560802327
-2.049667076 -3.881892317 -0.480449657
-2.038895885 -4.2290725 -0.558420963
-2.010130653 -4.555389262 -0.45585696
-2.029702095 -5.094422143 -0.556160914
-2.057365289 -3.867687216 -0.479470473
-2.037973389 -4.194216424 -0.55464149
-2.003855864 -4.503708385 -0.451298396
-1.98854893 -4.946935814 -0.540723193
-2.05466601 -3.834195292 -0.476097744
-2.043407269 -4.172783621 -0.552633648
-2.010734248 -4.482093373 -0.449748467
-2.03213264 -5.01088086 -0.548391627
-2.037614355 -3.774514325 -0.469461124
-2.06103354 -4.176290183 -0.553932851
-2.012984784 -4.450498014 -0.447195689
-2.021125695 -4.940166011 -0.541328597
-2.040161851 -3.751652859 -0.467393947
-2.072509946 -4.167280073 -0.553578502
-2.020018347 -4.42980443 -0.445736926
-2.023367729 -4.902673706 -0.537897992
-2.047841502 -3.73840137 -0.466523569
-2.092403861 -4.175105958 -0.555468267
-2.031935535 -4.41996685 -0.445372264
-2.034575557 -4.887258351 -0.536889004
-2.056899888 -3.727749398 -0.465979588
-2.101174279 -4.160689592 -0.554405278
-2.041298899 -4.404676958 -0.444460551
-2.034537947 -4.845218187 -0.532953905
-2.046112513 -3.681452692 -0.460974912
-2.104021578 -4.134753616 -0.551806873
-2.043000792 -4.373131058 -0.441907744
-2.023397501 -4.777573635 -0.526193606
-2.078277401 -3.712456094 -0.465653192
-2.0147584 -3.929464223 -0.525232262
-2.05343775 -4.360535938 -0.441269528
-2.024367115 -4.739320714 -0.52266209
-2.063780644 -3.660169667 -0.45988692
-2.02498126 -3.91973558 -0.524759835
-2.064670906 -4.349717357 -0.440813671
-2.040078465 -4.735829082 -0.522964822
-2.066164135 -3.638261612 -0.457928579
-2.034246556 -3.908219566 -0.524051137
-2.081014452 -4.349650816 -0.441451888
-2.028435169 -4.669321852 -0.516305432
-2.093603256 -3.66038115 -0.461518895
-2.0406932 -3.891407136 -0.522633856
-2.035091542 -4.220357904 -0.428961407
-1.979675913 -4.519092839 -0.500363217
-2.096388199 -3.639297364 -0.459669333
-2.047983549 -3.87634832 -0.521452732
-2.035912593 -4.218860682 -0.602497223
-2.036276937 -4.189911264 -0.426499765
-1.988304815 -4.501167394 -0.499051499
-2.106545986 -3.631128975 -0.459451746
-2.036071607 -3.825341991 -0.515429204
-2.049713956 -4.214378575 -0.602752331
-2.046931744 -4.179173091 -0.426043909
-1.99805699 -4.485957872 -0.498042511
-2.127705353 -3.641815223 -0.461627702
-2.06422179 -3.849706976 -0.519563025
-2.054776223 -4.192039699 -0.600456181
-2.047401924 -4.147870195 -0.423491131
-2.002028327 -4.458024756 -0.495620893
-2.119208541 -3.601856377 -0.457384597
-2.059505206 -3.812776732 -0.515429204
-2.044785598 -4.139474894 -0.593822662
-2.029515448 -4.080047602 -0.417200279
-2.013233856 -4.446423641 -0.495015489
-2.130248935 -3.595337902 -0.457384597
-2.074040634 -3.81167369 -0.516137844
-2.034934108 -4.087898878 -0.587316813
-2.025512001 -4.040862246 -0.413826952
-2.025213164 -4.43660622 -0.494611906
-2.15400276 -3.61012691 -0.460104536
-2.070451915 -3.777427882 -0.512358314
-2.025230352 -4.037309735 -0.580938462
-2.01904274 -3.997296014 -0.409997742
-2.032992349 -4.417719207 -0.493199277
-2.159948865 -3.594980574 -0.459016543
-2.063313102 -3.737155128 -0.507752067
-2.038949459 -4.033732745 -0.581321182
-2.029489917 -3.987533067 -0.409633051
-2.044442578 -4.406948284 -0.492694782
-2.175599091 -3.595991636 -0.459995728
-2.067529415 -3.717789809 -0.505980438
-2.020255006 -3.966476353 -0.572519066
-2.033988944 -3.966224287 -0.408083152
-2.041938049 -4.366409212 -0.488860594
-2.189724169 -3.594393691 -0.460648517
-2.049323856 -3.658582158 -0.498775785
-2.017923136 -3.932022363 -0.568436923
-2.044776187 -3.957311187 -0.407809627
-2.047264255 -4.34302563 -0.486943472
-2.210097492 -3.602911139 -0.462606859
-2.077616323 -3.682547576 -0.502909606
-2.022232343 -3.910835703 -0.566268268
-2.064264926 -3.965152054 -0.40926839
-2.05075857 -4.316056075 -0.484622794
-2.200767936 -3.563129516 -0.458363782
-2.082036157 -3.664069267 -0.501256055
-2.029638536 -3.895817221 -0.56499261
-2.074107419 -3.954390845 -0.408812533
-2.053676761 -4.288208975 -0.482201206
-2.209064213 -3.552140275 -0.457819771
-2.077484271 -3.630085436 -0.497476583
-2.043886077 -3.893963074 -0.56563044
-2.041099123 -3.862603847 -0.399968903
-2.03006242 -4.205729529 -0.473624693
-2.20518018 -3.521755447 -0.454773438
-2.119851239 -3.677895174 -0.504917448
-2.042376953 -3.862247283 -0.561931017
-2.037497307 -3.827315432 -0.396960239
-2.032510473 -4.178010369 -0.471203106
-2.217564678 -3.517496282 -0.455099833
-2.089748718 -3.600093869 -0.495114391
-2.053750236 -3.855087937 -0.561803463
-2.052994919 -3.828067368 -0.397689621
-2.046194618 -4.173541621 -0.471404897
-2.233140199 -3.518229837 -0.456079018
-2.125339801 -3.635671825 -0.500901706
-2.085266728 -3.885473603 -0.567161264
-2.049582546 -3.793714124 -0.394772123
-2.051497293 -4.152081091 -0.469689595
-2.24445879 -3.51219969 -0.456187825
-2.128423461 -3.615442683 -0.499011999
-2.069347173 -3.827581492 -0.559634808
-2.049787169 -3.766415494 -0.392584007
-2.05358337 -4.124392897 -0.467268007
-2.248231473 -3.494429327 -0.454773438
-2.12937779 -3.591812045 -0.496649807
-2.06827199 -3.797696926 -0.556190552
-2.053194668 -3.745264291 -0.391034107
-2.045257139 -4.076278735 -0.462525683
-2.248133239 -3.470828662 -0.452597509
-2.155148407 -3.60998835 -0.500074988
-2.077528386 -3.786986023 -0.555552724
-2.060824049 -3.731973547 -0.390304725
-2.027677087 -4.010497578 -0.455765383
-2.25551329 -3.458919315 -0.45194472
-2.12886509 -3.541232489 -0.491452997
-2.079542543 -3.763232226 -0.553001348
-2.07420023 -3.729114612 -0.390669416
-2.029132769 -3.982982426 -0.453343796
-2.22847314 -3.394643933 -0.444437694
-2.151032494 -3.55337325 -0.494051402
-2.068889237 -3.716969607 -0.547133271
-2.072976339 -3.700145065 -0.388298969
-2.035436381 -3.965232243 -0.452032106
-2.282723053 -3.4541371 -0.453141492
-2.149519933 -3.526407652 -0.491216784
-2.090953607 -3.729638129 -0.549939755
-2.076488135 -3.679891417 -0.386840206
-2.043935512 -3.951899299 -0.451224881
-2.159289831 -3.518103796 -0.490980571
-2.095070985 -3.710250826 -0.548026267
-2.087275965 -3.672637812 -0.38674904
-2.058808696 -3.950903856 -0.451830285
-2.179991712 -3.527512061 -0.493224627
-2.07751466 -3.652938783 -0.54049981
-2.101502001 -3.671402405 -0.387296062
-2.068145487 -3.939283347 -0.45122488
-2.196574463 -3.530081525 -0.494523829
-2.082303375 -3.635359462 -0.538841488
-2.082417138 -3.61231046 -0.38173462
-2.059288746 -3.893344674 -0.446684378
-2.205285374 -3.519959966 -0.494051402
-2.123183163 -3.680501652 -0.546495442
-2.088489941 -3.597292369 -0.380822907
-2.051573486 -3.850131418 -0.442446577
-2.211835766 -3.506458818 -0.493106491
-2.104072051 -3.621656648 -0.538713876
-2.110071639 -3.608921384 -0.382737498
-2.065258148 -3.847325628 -0.44285019
-2.218324197 -3.492950515 -0.492161638
-2.127695072 -3.636586239 -0.541903081
-2.128712903 -3.615302596 -0.384105067
-2.067113857 -3.822593481 -0.440731304
-2.226890479 -3.482781972 -0.491689211
-2.111653106 -3.583896758 -0.535014454
-2.132683801 -3.596762882 -0.382828664
-2.061222352 -3.783907451 -0.436997996
-2.236489875 -3.47426351 -0.491452997
-2.132760798 -3.594461175 -0.53756583
-2.146771749 -3.59533306 -0.383375715
-2.048412846 -3.733082858 -0.431852089
-2.132077746 -3.568318203 -0.534631791
-2.171133876 -3.610919425 -0.385746162
